"X","Y","Z","Intensity"
596348.230,3312188.450,254.370,259.000
596347.680,3312188.420,254.370,259.000
596347.130,3312188.400,254.380,302.000
596346.590,3312188.370,254.420,281.000
596346.030,3312188.350,254.430,346.000
596345.490,3312188.320,254.500,302.000
596344.940,3312188.300,254.490,324.000
596344.390,3312188.280,254.530,281.000
596343.840,3312188.250,254.520,324.000
596343.290,3312188.230,254.530,303.000
596342.730,3312188.200,254.550,346.000
596342.180,3312188.180,254.550,281.000
596341.640,3312188.150,254.590,325.000
596341.090,3312188.130,254.640,346.000
596341.040,3312187.910,254.670,346.000
596341.580,3312187.930,254.600,346.000
596342.120,3312187.960,254.570,303.000
596342.670,3312187.980,254.520,303.000
596343.220,3312188.000,254.570,346.000
596343.770,3312188.030,254.530,324.000
596344.320,3312188.050,254.520,281.000
596344.860,3312188.070,254.500,346.000
596345.410,3312188.090,254.500,303.000
596345.960,3312188.120,254.470,302.000
596346.500,3312188.140,254.430,302.000
596347.050,3312188.160,254.420,302.000
596347.600,3312188.180,254.390,259.000
596348.150,3312188.210,254.380,302.000
596348.690,3312188.230,254.350,237.000
596349.240,3312188.250,254.330,259.000
596349.780,3312188.270,254.320,281.000
596350.330,3312188.300,254.280,324.000
596350.880,3312188.320,254.290,259.000
596351.430,3312188.340,254.270,259.000
596351.980,3312188.360,254.280,237.000
596352.530,3312188.390,254.240,259.000
596353.080,3312188.410,254.240,237.000
596353.620,3312188.430,254.220,259.000
596354.170,3312188.450,254.210,280.000
596354.720,3312188.480,254.230,237.000
596355.270,3312188.500,254.230,323.000
596355.810,3312188.520,254.190,302.000
596356.370,3312188.540,254.210,323.000
596356.910,3312188.570,254.190,258.000
596357.460,3312188.590,254.200,280.000
596358.010,3312188.610,254.200,301.000
596358.560,3312188.630,254.210,258.000
596359.100,3312188.650,254.190,258.000
596359.650,3312188.680,254.190,301.000
596360.200,3312188.700,254.170,323.000
596360.750,3312188.720,254.180,258.000
596361.300,3312188.740,254.180,301.000
596361.850,3312188.770,254.170,323.000
596362.390,3312188.790,254.160,301.000
596362.940,3312188.810,254.140,279.000
596363.490,3312188.830,254.170,301.000
596364.040,3312188.860,254.180,301.000
596364.590,3312188.880,254.210,279.000
596365.140,3312188.900,254.250,301.000
596365.680,3312188.920,254.170,193.000
596366.230,3312188.940,254.250,257.000
596366.770,3312188.970,254.250,386.000
596367.310,3312188.990,254.150,257.000
596367.850,3312189.010,254.110,322.000
596368.400,3312189.030,254.090,300.000
596368.950,3312189.060,254.050,257.000
596369.490,3312189.080,254.040,257.000
596370.030,3312189.100,254.020,300.000
596370.590,3312189.120,254.120,279.000
596371.130,3312189.150,254.080,300.000
596371.670,3312189.170,254.040,343.000
596372.220,3312189.190,254.060,343.000
596372.770,3312189.210,254.070,279.000
596373.310,3312189.240,254.070,300.000
596373.860,3312189.260,254.030,279.000
596374.410,3312189.280,254.060,321.000
596374.950,3312189.300,254.030,300.000
596375.500,3312189.320,254.080,321.000
596376.050,3312189.350,254.130,343.000
596376.590,3312189.370,254.040,257.000
596377.130,3312189.390,254.030,214.000
596377.670,3312189.410,254.060,235.000
596378.220,3312189.430,254.070,257.000
596378.760,3312189.460,254.060,278.000
596379.310,3312189.480,254.050,235.000
596379.860,3312189.500,254.070,300.000
596380.400,3312189.520,254.070,235.000
596380.940,3312189.550,254.090,278.000
596381.480,3312189.570,254.050,278.000
596382.030,3312189.590,254.110,299.000
596382.580,3312189.610,254.110,278.000
596383.120,3312189.630,254.110,278.000
596383.670,3312189.660,254.120,278.000
596384.220,3312189.680,254.150,278.000
596384.770,3312189.700,254.180,278.000
596385.310,3312189.720,254.200,278.000
596385.860,3312189.740,254.230,299.000
596386.400,3312189.760,254.250,256.000
596386.950,3312189.790,254.320,235.000
596387.500,3312189.810,254.400,235.000
596388.040,3312189.830,254.460,277.000
596388.590,3312189.850,254.410,277.000
596389.130,3312189.870,254.420,277.000
596389.670,3312189.900,254.400,299.000
596390.220,3312189.920,254.450,277.000
596390.770,3312189.940,254.510,256.000
596391.310,3312189.960,254.420,277.000
596391.850,3312189.980,254.470,341.000
596392.390,3312190.010,254.460,298.000
596392.930,3312190.030,254.420,298.000
596393.480,3312190.050,254.440,213.000
596394.020,3312190.070,254.450,277.000
596394.570,3312190.090,254.370,298.000
596395.110,3312190.120,254.420,298.000
596395.660,3312190.140,254.420,490.000
596396.420,3312190.100,258.950,36.000
596396.210,3312190.160,254.470,405.000
596396.900,3312190.140,257.780,53.000
596396.750,3312190.180,254.510,201.000
596397.570,3312190.120,260.690,49.000
596397.450,3312190.160,257.940,94.000
596397.290,3312190.200,254.410,161.000
596398.030,3312190.170,258.780,104.000
596397.830,3312190.230,254.490,114.000
596398.760,3312190.130,263.210,8.000
596398.580,3312190.180,259.130,86.000
596398.370,3312190.250,254.460,298.000
596399.270,3312190.150,262.820,69.000
596398.920,3312190.270,254.550,298.000
596399.750,3312190.190,261.470,116.000
596399.460,3312190.290,254.560,92.000
596400.320,3312190.200,262.200,44.000
596400.000,3312190.310,254.590,405.000
596400.880,3312190.220,262.800,63.000
596400.690,3312190.290,258.050,66.000
596400.550,3312190.340,254.560,179.000
596401.430,3312190.240,262.920,228.000
596401.970,3312190.260,263.090,269.000
596402.480,3312190.290,262.530,145.000
596402.280,3312190.370,257.060,41.000
596403.040,3312190.300,262.980,51.000
596403.590,3312190.310,263.700,165.000
596404.120,3312190.340,263.490,135.000
596403.810,3312190.460,254.810,185.000
596404.580,3312190.390,261.480,187.000
596404.360,3312190.490,254.850,74.000
596405.120,3312190.410,261.610,166.000
596404.900,3312190.500,255.020,11.000
596405.760,3312190.390,264.620,206.000
596405.630,3312190.450,260.630,15.000
596406.270,3312190.420,263.980,152.000
596406.190,3312190.460,261.340,36.000
596405.990,3312190.550,255.150,94.000
596406.820,3312190.440,264.150,185.000
596406.540,3312190.570,255.210,21.000
596407.350,3312190.460,264.140,165.000
596407.210,3312190.530,259.370,27.000
596407.840,3312190.500,262.590,135.000
596407.620,3312190.610,255.150,175.000
596408.400,3312190.510,263.730,120.000
596408.160,3312190.640,255.140,106.000
596408.960,3312190.520,264.480,144.000
596408.710,3312190.650,255.350,8.000
596409.480,3312190.550,263.960,144.000
596409.250,3312190.680,255.330,124.000
596410.010,3312190.570,263.850,23.000
596409.790,3312190.700,255.290,467.000
596410.560,3312190.580,264.570,54.000
596410.490,3312190.620,261.790,134.000
596410.330,3312190.720,255.320,131.000
596411.020,3312190.650,261.640,137.000
596410.870,3312190.740,255.290,66.000
596411.640,3312190.620,265.190,185.000
596411.550,3312190.680,261.160,18.000
596411.420,3312190.760,255.350,9.000
596412.150,3312190.660,263.990,81.000
596412.100,3312190.690,261.460,93.000
596412.020,3312190.740,258.200,34.000
596412.690,3312190.670,264.310,44.000
596412.610,3312190.730,260.600,139.000
596412.560,3312190.770,258.110,43.000
596412.510,3312190.810,255.530,27.000
596413.220,3312190.700,263.900,137.000
596413.170,3312190.740,261.360,140.000
596413.050,3312190.830,255.510,9.000
596413.710,3312190.760,261.520,101.000
596413.590,3312190.850,255.420,202.000
596414.300,3312190.730,264.840,185.000
596414.130,3312190.870,255.550,41.000
596414.820,3312190.760,264.300,146.000
596414.670,3312190.890,255.430,47.000
596415.340,3312190.800,263.080,207.000
596415.210,3312190.910,255.570,31.000
596415.890,3312190.800,264.330,164.000
596416.410,3312190.840,263.200,119.000
596416.300,3312190.960,255.620,254.000
596416.840,3312190.980,255.610,275.000
596417.380,3312191.000,255.630,339.000
596417.990,3312190.940,261.200,15.000
596417.920,3312191.020,255.670,424.000
596418.530,3312190.960,261.310,65.000
596418.460,3312191.040,255.710,339.000
596419.060,3312190.980,261.090,166.000
596419.010,3312191.070,255.680,79.000
596419.630,3312190.960,264.170,39.000
596419.600,3312191.010,260.820,22.000
596419.550,3312191.090,255.600,297.000
596420.140,3312191.030,260.910,149.000
596420.090,3312191.110,255.720,66.000
596420.700,3312191.000,264.160,175.000
596420.670,3312191.050,260.770,27.000
596420.630,3312191.130,255.780,66.000
596421.240,3312191.020,264.180,151.000
596421.210,3312191.080,260.640,12.000
596421.180,3312191.150,255.740,115.000
596421.780,3312191.040,264.570,181.000
596421.720,3312191.170,255.840,68.000
596422.320,3312191.040,265.450,66.000
596422.280,3312191.140,259.450,90.000
596422.260,3312191.200,255.750,76.000
596422.850,3312191.060,265.680,158.000
596422.820,3312191.160,259.560,43.000
596422.810,3312191.220,255.870,6.000
596423.370,3312191.120,263.070,57.000
596423.350,3312191.240,255.890,296.000
596423.910,3312191.130,264.010,159.000
596423.900,3312191.210,259.170,46.000
596423.890,3312191.260,255.850,57.000
596424.440,3312191.160,263.560,163.000
596424.440,3312191.210,260.200,39.000
596424.430,3312191.280,255.940,26.000
596424.980,3312191.180,263.790,74.000
596424.970,3312191.240,260.080,112.000
596424.970,3312191.300,255.980,86.000
596425.510,3312191.200,263.960,78.000
596425.510,3312191.240,261.120,133.000
596425.510,3312191.320,256.060,39.000
596426.040,3312191.210,264.670,99.000
596426.580,3312191.230,264.510,148.000
596426.590,3312191.370,256.010,66.000
596427.140,3312191.390,256.060,423.000
596427.660,3312191.310,262.520,124.000
596427.680,3312191.410,256.070,192.000
596428.200,3312191.320,262.780,92.000
596428.230,3312191.430,256.070,317.000
596428.730,3312191.350,262.530,123.000
596428.770,3312191.450,256.100,172.000
596429.260,3312191.350,263.840,165.000
596429.310,3312191.470,256.220,30.000
596429.800,3312191.380,263.300,165.000
596429.850,3312191.500,256.230,47.000
596430.340,3312191.410,263.030,85.000
596430.390,3312191.520,256.140,338.000
596430.870,3312191.420,263.420,155.000
596430.930,3312191.540,256.210,77.000
596431.400,3312191.430,263.990,247.000
596431.470,3312191.560,256.170,9.000
596431.940,3312191.460,263.580,186.000
596432.470,3312191.480,264.010,185.000
596432.560,3312191.610,256.190,39.000
596433.020,3312191.510,263.480,90.000
596433.060,3312191.560,260.050,34.000
596433.110,3312191.630,256.220,142.000
596433.560,3312191.540,262.800,186.000
596433.650,3312191.650,256.200,62.000
596434.100,3312191.560,262.890,227.000
596434.190,3312191.670,256.350,9.000
596434.630,3312191.570,263.710,165.000
596434.740,3312191.690,256.260,59.000
596435.180,3312191.610,262.750,167.000
596435.280,3312191.710,256.270,31.000
596435.690,3312191.610,263.980,185.000
596435.820,3312191.740,256.250,29.000
596436.210,3312191.620,264.480,185.000
596436.360,3312191.760,256.390,25.000
596436.770,3312191.660,263.160,165.000
596437.320,3312191.700,262.510,186.000
596437.850,3312191.710,263.030,165.000
596438.410,3312191.750,261.930,166.000
596438.530,3312191.840,256.400,22.000
596438.980,3312191.800,260.330,229.000
596439.610,3312191.890,256.310,381.000
596440.150,3312191.910,256.300,338.000
596440.700,3312191.930,256.290,317.000
596441.240,3312191.950,256.330,360.000
596441.780,3312191.980,256.310,296.000
596442.320,3312192.000,256.330,296.000
596442.870,3312192.020,256.360,296.000
596443.410,3312192.040,256.380,296.000
596443.950,3312192.060,256.370,296.000
596444.490,3312192.080,256.460,275.000
596445.030,3312192.110,256.440,338.000
596445.580,3312192.130,256.410,296.000
596446.120,3312192.150,256.500,296.000
596446.650,3312192.170,256.620,232.000
596447.200,3312192.190,256.640,148.000
596447.740,3312192.210,256.530,275.000
596448.290,3312192.240,256.520,254.000
596448.830,3312192.260,256.630,211.000
596449.370,3312192.280,256.640,232.000
596449.910,3312192.300,256.810,232.000
596450.450,3312192.320,256.780,127.000
596450.990,3312192.340,256.710,169.000
596451.530,3312192.360,256.870,169.000
596452.070,3312192.390,256.740,232.000
596452.620,3312192.410,256.720,275.000
596453.160,3312192.430,256.740,275.000
596453.700,3312192.450,256.760,275.000
596454.250,3312192.470,256.810,296.000
596454.790,3312192.490,256.880,232.000
596455.330,3312192.510,256.910,275.000
596455.870,3312192.540,256.930,254.000
596455.640,3312192.070,257.000,275.000
596455.110,3312192.050,256.910,254.000
596454.560,3312192.020,256.890,338.000
596454.030,3312192.000,256.790,317.000
596453.490,3312191.980,256.820,296.000
596452.950,3312191.950,256.750,296.000
596452.420,3312191.930,256.720,296.000
596451.880,3312191.910,256.760,254.000
596451.350,3312191.880,256.670,232.000
596450.800,3312191.860,256.710,232.000
596450.270,3312191.840,256.640,211.000
596449.720,3312191.810,256.730,275.000
596449.180,3312191.790,256.610,275.000
596448.640,3312191.770,256.610,338.000
596448.100,3312191.740,256.550,317.000
596447.560,3312191.720,256.570,232.000
596447.020,3312191.690,256.630,190.000
596446.490,3312191.670,256.620,254.000
596445.950,3312191.650,256.480,275.000
596445.410,3312191.630,256.470,317.000
596444.870,3312191.600,256.440,317.000
596444.330,3312191.580,256.510,317.000
596443.790,3312191.550,256.400,296.000
596443.250,3312191.530,256.410,275.000
596442.710,3312191.510,256.390,359.000
596442.170,3312191.480,256.360,317.000
596441.630,3312191.460,256.360,338.000
596441.100,3312191.440,256.340,338.000
596440.560,3312191.410,256.310,338.000
596440.020,3312191.390,256.310,381.000
596439.400,3312191.310,259.620,146.000
596439.470,3312191.360,256.410,27.000
596438.850,3312191.280,260.220,159.000
596438.940,3312191.340,256.330,56.000
596438.300,3312191.240,260.950,90.000
596438.390,3312191.320,256.430,338.000
596437.730,3312191.200,262.230,166.000
596437.850,3312191.290,256.420,9.000
596437.210,3312191.180,261.720,145.000
596437.310,3312191.270,256.420,29.000
596436.660,3312191.150,262.220,103.000
596436.770,3312191.250,256.330,338.000
596436.120,3312191.120,262.760,133.000
596436.230,3312191.220,256.280,170.000
596435.570,3312191.080,263.670,144.000
596435.690,3312191.200,256.300,41.000
596435.040,3312191.060,263.610,143.000
596435.150,3312191.180,256.270,8.000
596434.520,3312191.050,262.510,228.000
596433.980,3312191.030,262.500,207.000
596434.070,3312191.130,256.230,27.000
596433.450,3312191.010,262.190,172.000
596433.530,3312191.100,256.250,129.000
596432.890,3312190.960,263.740,181.000
596432.980,3312191.080,256.240,113.000
596432.360,3312190.930,263.920,206.000
596432.440,3312191.060,256.280,17.000
596431.820,3312190.910,263.850,185.000
596431.900,3312191.030,256.250,39.000
596431.300,3312190.890,263.320,175.000
596431.360,3312191.010,256.280,7.000
596430.760,3312190.860,263.760,87.000
596430.820,3312190.990,256.220,423.000
596430.230,3312190.850,263.030,43.000
596430.290,3312190.960,256.140,444.000
596429.700,3312190.830,263.150,186.000
596429.740,3312190.940,256.170,41.000
596429.160,3312190.800,263.120,186.000
596429.200,3312190.910,256.240,71.000
596428.620,3312190.790,262.660,128.000
596428.660,3312190.890,256.150,177.000
596428.090,3312190.760,262.730,165.000
596428.110,3312190.870,256.100,48.000
596427.550,3312190.740,262.660,9.000
596427.570,3312190.840,256.080,444.000
596427.020,3312190.780,258.580,138.000
596427.030,3312190.820,256.030,147.000
596426.480,3312190.660,264.610,51.000
596426.490,3312190.750,258.800,123.000
596426.490,3312190.800,255.970,97.000
596425.950,3312190.650,264.100,174.000
596425.950,3312190.730,258.970,41.000
596425.960,3312190.770,255.970,26.000
596425.420,3312190.600,265.310,65.000
596425.420,3312190.670,261.090,153.000
596424.890,3312190.600,264.340,124.000
596424.880,3312190.680,259.070,14.000
596424.360,3312190.560,265.030,143.000
596424.340,3312190.650,259.250,37.000
596424.340,3312190.700,255.850,30.000
596423.830,3312190.520,266.200,93.000
596423.810,3312190.570,262.790,44.000
596423.800,3312190.630,258.940,25.000
596423.790,3312190.680,255.880,82.000
596423.280,3312190.540,263.110,155.000
596423.270,3312190.600,259.800,52.000
596423.250,3312190.660,255.850,49.000
596422.750,3312190.490,265.360,134.000
596422.730,3312190.570,259.860,12.000
596422.710,3312190.630,255.840,98.000
596422.220,3312190.450,265.830,187.000
596422.160,3312190.610,255.860,32.000
596421.680,3312190.450,264.360,146.000
596421.650,3312190.510,260.910,29.000
596421.620,3312190.590,255.770,57.000
596421.150,3312190.410,265.850,169.000
596421.120,3312190.480,261.160,24.000
596421.080,3312190.560,255.760,28.000
596420.620,3312190.390,265.590,87.000
596420.580,3312190.460,261.030,104.000
596420.540,3312190.540,255.720,30.000
596420.080,3312190.380,264.540,132.000
596420.050,3312190.430,261.160,40.000
596420.000,3312190.520,255.670,68.000
596419.510,3312190.410,261.340,166.000
596418.970,3312190.380,261.370,156.000
596418.910,3312190.470,255.700,101.000
596418.370,3312190.440,255.670,381.000
596417.830,3312190.420,255.630,360.000
596417.330,3312190.350,258.850,60.000
596417.290,3312190.400,255.670,402.000
596416.790,3312190.320,258.850,132.000
596416.200,3312190.350,255.530,297.000
596415.830,3312190.170,266.020,22.000
596415.760,3312190.230,261.740,54.000
596415.660,3312190.330,255.480,187.000
596415.300,3312190.150,265.920,50.000
596415.120,3312190.300,255.450,360.000
596414.740,3312190.140,264.610,144.000
596414.580,3312190.280,255.590,61.000
596414.210,3312190.120,264.490,68.000
596414.040,3312190.260,255.500,196.000
596413.670,3312190.100,264.070,165.000
596413.020,3312190.160,258.450,162.000
596412.950,3312190.210,255.420,136.000
596412.590,3312190.060,264.050,109.000
596412.520,3312190.110,260.840,100.000
596412.470,3312190.140,258.300,85.000
596412.410,3312190.190,255.370,16.000
596412.050,3312190.040,263.700,64.000
596412.000,3312190.070,261.400,44.000
596411.860,3312190.160,255.320,180.000
596411.460,3312190.040,261.690,161.000
596411.380,3312190.100,258.250,58.000
596410.990,3312189.980,264.520,175.000
596410.770,3312190.110,255.380,54.000
596410.460,3312189.950,264.590,58.000
596410.230,3312190.090,255.350,403.000
596409.890,3312189.960,262.910,73.000
596409.340,3312189.940,262.370,109.000
596409.150,3312190.040,255.280,297.000
596408.820,3312189.910,262.800,145.000
596408.610,3312190.020,255.280,52.000
596408.310,3312189.870,263.870,141.000
596408.070,3312190.000,255.240,158.000
596407.740,3312189.870,262.550,166.000
596407.520,3312189.970,255.200,49.000
596407.200,3312189.840,262.550,111.000
596407.080,3312189.900,258.420,148.000
596406.670,3312189.820,262.710,186.000
596406.540,3312189.880,258.500,60.000
596406.430,3312189.930,255.050,14.000
596406.170,3312189.780,263.980,30.000
596406.070,3312189.820,260.680,109.000
596405.900,3312189.900,255.340,123.000
596405.640,3312189.750,263.870,248.000
596405.080,3312189.740,263.190,227.000
596404.920,3312189.800,258.600,24.000
596404.800,3312189.860,255.000,6.000
596404.530,3312189.720,262.810,207.000
596404.380,3312189.780,258.500,37.000
596404.250,3312189.840,254.750,21.000
596403.980,3312189.700,262.360,207.000
596403.710,3312189.810,254.810,9.000
596403.440,3312189.680,262.230,207.000
596403.170,3312189.790,254.790,47.000
596402.910,3312189.660,262.450,166.000
596402.620,3312189.760,254.760,120.000
596402.380,3312189.630,262.580,269.000
596401.850,3312189.600,262.840,228.000
596401.530,3312189.720,254.690,22.000
596401.390,3312189.550,264.750,31.000
596400.990,3312189.690,254.630,404.000
596400.770,3312189.560,262.590,76.000
596400.440,3312189.670,254.610,298.000
596400.230,3312189.540,262.560,68.000
596399.900,3312189.650,254.620,175.000
596399.630,3312189.530,260.930,45.000
596399.540,3312189.560,258.820,43.000
596399.360,3312189.620,254.530,154.000
596399.250,3312189.460,264.520,46.000
596399.090,3312189.510,261.000,36.000
596398.810,3312189.600,254.500,174.000
596398.520,3312189.500,260.160,141.000
596398.280,3312189.570,254.610,140.000
596397.900,3312189.500,258.290,61.000
596397.730,3312189.550,254.560,187.000
596397.470,3312189.440,260.850,75.000
596397.180,3312189.530,254.560,205.000
596396.840,3312189.440,258.860,41.000
596396.640,3312189.500,254.510,426.000
596396.320,3312189.420,259.250,75.000
596396.090,3312189.480,254.530,319.000
596395.760,3312189.400,258.860,16.000
596395.550,3312189.460,254.480,469.000
596395.000,3312189.430,254.410,298.000
596394.450,3312189.410,254.430,320.000
596393.910,3312189.390,254.420,320.000
596393.370,3312189.360,254.450,384.000
596392.830,3312189.340,254.440,298.000
596392.290,3312189.310,254.510,298.000
596391.760,3312189.290,254.670,320.000
596391.200,3312189.260,254.470,277.000
596390.650,3312189.240,254.420,277.000
596390.110,3312189.220,254.450,277.000
596389.560,3312189.190,254.420,277.000
596389.020,3312189.170,254.460,277.000
596388.470,3312189.140,254.450,256.000
596387.930,3312189.120,254.430,256.000
596387.380,3312189.100,254.400,277.000
596386.840,3312189.070,254.360,256.000
596386.290,3312189.050,254.280,256.000
596385.740,3312189.030,254.220,299.000
596385.190,3312189.000,254.210,256.000
596384.640,3312188.980,254.200,278.000
596384.090,3312188.960,254.150,299.000
596383.550,3312188.930,254.130,278.000
596383.000,3312188.910,254.130,299.000
596382.460,3312188.880,254.120,278.000
596381.910,3312188.860,254.100,321.000
596381.360,3312188.840,254.080,299.000
596380.810,3312188.810,254.100,278.000
596380.270,3312188.790,254.080,235.000
596379.720,3312188.760,254.070,300.000
596379.170,3312188.740,254.050,257.000
596378.630,3312188.720,254.070,257.000
596378.090,3312188.690,254.080,257.000
596377.540,3312188.670,254.070,278.000
596377.000,3312188.650,254.030,235.000
596376.450,3312188.620,254.080,278.000
596375.910,3312188.600,254.090,300.000
596375.350,3312188.570,254.050,300.000
596374.800,3312188.550,254.030,321.000
596374.260,3312188.520,254.050,279.000
596373.710,3312188.500,254.070,321.000
596373.160,3312188.480,254.040,279.000
596372.620,3312188.450,254.080,300.000
596372.070,3312188.430,254.040,322.000
596371.530,3312188.400,254.060,322.000
596370.980,3312188.380,254.080,300.000
596370.430,3312188.360,254.070,257.000
596369.880,3312188.330,254.060,279.000
596369.340,3312188.310,254.070,322.000
596368.790,3312188.280,254.060,236.000
596368.240,3312188.260,254.100,300.000
596367.700,3312188.230,254.200,343.000
596367.160,3312188.210,254.230,279.000
596366.610,3312188.190,254.180,193.000
596366.070,3312188.160,254.210,196.000
596365.520,3312188.140,254.200,322.000
596364.970,3312188.110,254.220,258.000
596364.430,3312188.090,254.340,301.000
596363.860,3312188.060,254.140,301.000
596363.310,3312188.040,254.130,258.000
596362.770,3312188.020,254.170,301.000
596362.220,3312187.990,254.170,301.000
596361.670,3312187.970,254.160,279.000
596361.130,3312187.940,254.180,301.000
596360.580,3312187.920,254.180,323.000
596360.030,3312187.900,254.190,280.000
596359.480,3312187.870,254.180,280.000
596358.930,3312187.850,254.200,280.000
596358.380,3312187.820,254.210,280.000
596357.830,3312187.800,254.240,258.000
596357.290,3312187.770,254.250,280.000
596356.730,3312187.750,254.200,280.000
596356.190,3312187.730,254.250,280.000
596355.640,3312187.700,254.250,302.000
596355.090,3312187.680,254.260,280.000
596354.540,3312187.650,254.250,302.000
596353.990,3312187.630,254.260,280.000
596353.440,3312187.600,254.260,259.000
596352.890,3312187.580,254.270,302.000
596352.340,3312187.560,254.270,259.000
596351.790,3312187.530,254.300,280.000
596351.250,3312187.510,254.330,259.000
596350.700,3312187.480,254.330,324.000
596350.150,3312187.460,254.350,280.000
596349.600,3312187.440,254.350,281.000
596349.050,3312187.410,254.370,302.000
596348.500,3312187.390,254.370,302.000
596347.950,3312187.360,254.420,324.000
596347.400,3312187.340,254.430,281.000
596346.860,3312187.320,254.510,302.000
596346.310,3312187.290,254.470,324.000
596345.760,3312187.270,254.510,324.000
596345.210,3312187.240,254.510,259.000
596344.660,3312187.220,254.560,346.000
596344.110,3312187.190,254.530,368.000
596343.560,3312187.170,254.600,324.000
596343.000,3312187.150,254.590,324.000
596342.450,3312187.120,254.580,281.000
596341.900,3312187.100,254.590,260.000
596341.350,3312187.070,254.650,346.000
596358.430,3312184.720,440.420,10.000
596341.060,3312186.910,254.650,303.000
596341.600,3312186.930,254.640,346.000
596342.140,3312186.950,254.580,324.000
596342.690,3312186.970,254.570,259.000
596343.250,3312187.000,254.610,324.000
596343.790,3312187.020,254.560,346.000
596344.340,3312187.040,254.560,324.000
596344.890,3312187.060,254.550,281.000
596345.440,3312187.090,254.520,302.000
596345.980,3312187.110,254.500,324.000
596346.530,3312187.130,254.450,281.000
596347.080,3312187.160,254.450,237.000
596347.620,3312187.180,254.410,324.000
596348.170,3312187.200,254.410,324.000
596348.710,3312187.220,254.380,259.000
596349.260,3312187.250,254.360,281.000
596349.810,3312187.270,254.360,280.000
596350.350,3312187.290,254.320,280.000
596350.910,3312187.310,254.370,280.000
596351.450,3312187.340,254.330,280.000
596352.000,3312187.360,254.320,280.000
596352.550,3312187.380,254.310,280.000
596353.090,3312187.400,254.280,259.000
596353.640,3312187.430,254.280,237.000
596354.190,3312187.450,254.240,259.000
596354.740,3312187.470,254.260,258.000
596355.290,3312187.500,254.250,323.000
596355.840,3312187.520,254.250,302.000
596356.380,3312187.540,254.220,280.000
596356.930,3312187.560,254.220,323.000
596357.480,3312187.580,254.280,215.000
596358.020,3312187.610,254.210,301.000
596358.570,3312187.630,254.230,280.000
596359.120,3312187.650,254.200,301.000
596359.660,3312187.680,254.190,301.000
596360.210,3312187.700,254.170,280.000
596360.760,3312187.720,254.170,258.000
596361.310,3312187.740,254.210,323.000
596361.850,3312187.770,254.190,301.000
596362.400,3312187.790,254.170,258.000
596362.940,3312187.810,254.160,301.000
596363.490,3312187.830,254.160,258.000
596364.040,3312187.860,254.170,301.000
596364.600,3312187.880,254.270,236.000
596365.140,3312187.900,254.230,215.000
596365.690,3312187.920,254.220,150.000
596366.240,3312187.940,254.230,214.000
596366.790,3312187.970,254.310,322.000
596367.340,3312187.990,254.270,279.000
596367.870,3312188.010,254.140,322.000
596368.410,3312188.040,254.120,322.000
596368.960,3312188.060,254.070,257.000
596369.500,3312188.080,254.050,236.000
596370.050,3312188.100,254.070,365.000
596370.600,3312188.130,254.070,279.000
596371.140,3312188.150,254.050,300.000
596371.690,3312188.170,254.070,279.000
596372.240,3312188.190,254.110,279.000
596372.790,3312188.220,254.060,300.000
596373.330,3312188.240,254.060,279.000
596373.870,3312188.260,254.050,257.000
596374.410,3312188.280,254.030,279.000
596374.960,3312188.310,254.060,278.000
596375.500,3312188.330,254.080,321.000
596376.050,3312188.350,254.070,278.000
596376.600,3312188.370,254.060,321.000
596377.140,3312188.390,254.060,278.000
596377.690,3312188.420,254.060,257.000
596378.230,3312188.440,254.070,278.000
596378.780,3312188.460,254.070,257.000
596379.320,3312188.480,254.070,300.000
596379.870,3312188.510,254.090,300.000
596380.410,3312188.530,254.080,299.000
596380.960,3312188.550,254.080,299.000
596381.500,3312188.570,254.100,299.000
596382.050,3312188.600,254.120,278.000
596382.600,3312188.620,254.140,278.000
596383.140,3312188.640,254.130,278.000
596383.690,3312188.660,254.170,321.000
596384.230,3312188.680,254.170,278.000
596384.770,3312188.710,254.200,256.000
596385.320,3312188.730,254.200,235.000
596385.860,3312188.750,254.260,278.000
596386.410,3312188.770,254.300,277.000
596386.960,3312188.790,254.370,277.000
596387.500,3312188.810,254.380,256.000
596388.050,3312188.840,254.410,256.000
596388.600,3312188.860,254.460,277.000
596389.140,3312188.880,254.440,277.000
596389.680,3312188.900,254.440,256.000
596390.230,3312188.920,254.470,234.000
596390.770,3312188.950,254.450,320.000
596391.310,3312188.970,254.510,277.000
596391.860,3312188.990,254.500,277.000
596392.400,3312189.010,254.470,277.000
596392.950,3312189.040,254.450,341.000
596393.490,3312189.060,254.490,362.000
596394.040,3312189.080,254.440,341.000
596394.580,3312189.100,254.470,384.000
596395.120,3312189.130,254.440,234.000
596395.880,3312189.080,259.080,31.000
596395.660,3312189.150,254.450,426.000
596396.420,3312189.110,259.050,138.000
596396.210,3312189.170,254.580,147.000
596396.980,3312189.120,259.680,161.000
596396.750,3312189.190,254.560,49.000
596397.530,3312189.140,259.840,180.000
596397.290,3312189.210,254.570,115.000
596398.100,3312189.150,260.380,112.000
596397.840,3312189.240,254.540,173.000
596398.600,3312189.190,259.490,113.000
596398.390,3312189.260,254.610,197.000
596399.350,3312189.140,264.420,59.000
596399.230,3312189.180,261.610,94.000
596399.110,3312189.220,258.700,63.000
596398.930,3312189.280,254.580,70.000
596399.900,3312189.160,264.870,31.000
596399.650,3312189.240,258.870,84.000
596399.470,3312189.300,254.570,158.000
596400.350,3312189.210,262.730,45.000
596400.010,3312189.320,254.610,188.000
596400.860,3312189.240,262.310,88.000
596400.550,3312189.350,254.650,161.000
596401.420,3312189.250,262.930,89.000
596401.280,3312189.300,259.290,13.000
596401.090,3312189.370,254.580,298.000
596401.950,3312189.280,262.750,249.000
596401.650,3312189.390,254.880,10.000
596402.480,3312189.300,262.620,269.000
596403.010,3312189.330,262.400,270.000
596402.730,3312189.430,254.780,20.000
596403.560,3312189.340,262.880,248.000
596404.090,3312189.370,262.530,228.000
596403.930,3312189.430,258.200,17.000
596404.630,3312189.390,262.720,186.000
596405.170,3312189.400,263.020,186.000
596405.020,3312189.470,258.380,11.000
596405.730,3312189.420,263.560,227.000
596406.250,3312189.450,263.150,186.000
596406.090,3312189.520,258.260,39.000
596405.990,3312189.560,255.150,20.000
596406.760,3312189.480,262.450,145.000
596406.540,3312189.580,255.280,85.000
596407.290,3312189.500,262.300,42.000
596407.170,3312189.560,258.110,185.000
596407.830,3312189.520,262.400,166.000
596407.620,3312189.630,255.320,6.000
596408.410,3312189.520,263.890,43.000
596408.170,3312189.650,255.280,446.000
596408.910,3312189.570,262.500,186.000
596408.710,3312189.670,255.360,86.000
596409.430,3312189.600,262.020,21.000
596409.260,3312189.690,255.290,467.000
596409.980,3312189.610,262.340,83.000
596409.800,3312189.720,255.340,361.000
596410.510,3312189.640,262.080,97.000
596410.340,3312189.740,255.340,318.000
596411.040,3312189.660,261.910,149.000
596410.880,3312189.760,255.430,140.000
596411.570,3312189.680,262.020,173.000
596411.490,3312189.740,258.260,39.000
596411.420,3312189.780,255.340,21.000
596412.080,3312189.730,260.670,178.000
596411.960,3312189.800,255.470,13.000
596412.680,3312189.700,263.980,41.000
596412.620,3312189.740,260.830,170.000
596412.500,3312189.830,255.400,52.000
596413.230,3312189.720,264.280,52.000
596413.050,3312189.840,255.640,318.000
596413.750,3312189.750,263.600,158.000
596413.590,3312189.870,255.470,105.000
596414.270,3312189.780,262.760,97.000
596414.130,3312189.890,255.450,158.000
596414.820,3312189.790,263.910,59.000
596414.680,3312189.910,255.580,360.000
596415.390,3312189.780,265.890,154.000
596415.220,3312189.930,255.600,99.000
596415.920,3312189.800,265.650,79.000
596415.760,3312189.960,255.590,144.000
596416.420,3312189.850,263.840,96.000
596416.370,3312189.910,260.060,62.000
596416.300,3312189.980,255.620,100.000
596416.890,3312189.950,258.790,191.000
596416.840,3312190.000,255.550,94.000
596417.420,3312189.970,258.820,35.000
596417.380,3312190.020,255.680,487.000
596417.920,3312190.050,255.640,360.000
596418.530,3312189.980,261.320,111.000
596419.100,3312189.960,264.210,95.000
596419.070,3312190.000,261.560,69.000
596419.000,3312190.090,255.640,123.000
596419.630,3312189.980,263.910,165.000
596419.600,3312190.020,261.320,46.000
596419.550,3312190.110,255.740,11.000
596420.160,3312190.010,263.820,132.000
596420.140,3312190.040,261.510,50.000
596420.090,3312190.130,255.670,62.000
596420.710,3312190.010,265.300,93.000
596420.670,3312190.080,260.810,66.000
596420.630,3312190.160,255.720,55.000
596421.240,3312190.030,265.540,184.000
596421.210,3312190.090,261.180,26.000
596421.170,3312190.180,255.750,14.000
596421.770,3312190.060,264.900,100.000
596421.750,3312190.110,261.200,22.000
596421.710,3312190.200,255.770,124.000
596422.300,3312190.070,265.300,79.000
596422.250,3312190.220,255.830,171.000
596422.830,3312190.100,264.890,184.000
596422.790,3312190.240,255.930,82.000
596423.360,3312190.150,262.940,165.000
596423.340,3312190.200,259.760,14.000
596423.330,3312190.260,255.900,43.000
596423.900,3312190.130,265.700,184.000
596423.880,3312190.220,260.280,22.000
596423.870,3312190.280,256.010,22.000
596424.430,3312190.160,265.090,163.000
596424.420,3312190.260,259.260,67.000
596424.410,3312190.310,255.880,15.000
596424.970,3312190.210,263.350,136.000
596424.960,3312190.330,256.090,23.000
596425.510,3312190.200,265.420,135.000
596425.510,3312190.270,261.100,50.000
596425.500,3312190.310,258.620,44.000
596425.500,3312190.350,255.990,11.000
596426.040,3312190.220,265.700,125.000
596426.040,3312190.330,258.870,33.000
596426.050,3312190.370,256.130,8.000
596426.570,3312190.250,265.030,30.000
596426.580,3312190.350,258.990,56.000
596426.590,3312190.400,255.980,186.000
596427.110,3312190.290,263.990,11.000
596427.120,3312190.370,259.010,314.000
596427.130,3312190.420,255.860,48.000
596427.670,3312190.440,256.050,402.000
596428.180,3312190.350,262.850,165.000
596428.720,3312190.380,262.560,179.000
596428.750,3312190.480,256.120,115.000
596429.250,3312190.400,262.970,248.000
596429.290,3312190.510,256.110,25.000
596429.790,3312190.420,263.000,107.000
596429.830,3312190.530,256.180,275.000
596430.330,3312190.440,262.940,24.000
596430.380,3312190.550,256.180,465.000
596430.870,3312190.470,262.500,187.000
596430.920,3312190.570,256.210,96.000
596431.400,3312190.480,263.060,186.000
596431.930,3312190.490,263.740,165.000
596432.500,3312190.580,259.990,71.000
596432.550,3312190.640,256.260,296.000
596433.000,3312190.550,262.960,165.000
596433.090,3312190.660,256.320,45.000
596433.540,3312190.580,262.680,186.000
596433.620,3312190.680,256.310,26.000
596434.080,3312190.610,262.200,186.000
596434.170,3312190.700,256.320,51.000
596434.620,3312190.630,262.220,132.000
596434.710,3312190.730,256.230,173.000
596435.150,3312190.640,262.600,186.000
596435.250,3312190.750,256.260,61.000
596435.690,3312190.660,262.800,154.000
596435.800,3312190.770,256.290,103.000
596436.240,3312190.700,262.100,186.000
596436.340,3312190.790,256.280,101.000
596436.780,3312190.720,261.970,166.000
596436.880,3312190.810,256.360,98.000
596437.310,3312190.740,261.840,145.000
596437.420,3312190.830,256.510,34.000
596437.870,3312190.780,260.840,166.000
596437.960,3312190.860,256.440,17.000
596438.360,3312190.760,263.440,186.000
596438.420,3312190.810,260.540,48.000
596438.500,3312190.880,256.380,6.000
596438.960,3312190.840,260.320,167.000
596439.040,3312190.900,256.390,33.000
596439.510,3312190.870,259.560,109.000
596439.580,3312190.930,256.320,92.000
596440.120,3312190.950,256.390,529.000
596440.510,3312190.860,262.640,9.000
596440.670,3312190.970,256.370,486.000
596441.210,3312190.990,256.330,317.000
596441.760,3312191.010,256.380,381.000
596442.300,3312191.030,256.420,338.000
596442.840,3312191.060,256.390,317.000
596443.380,3312191.080,256.360,275.000
596443.920,3312191.100,256.460,444.000
596444.460,3312191.120,256.430,338.000
596445.000,3312191.150,256.420,338.000
596445.540,3312191.170,256.510,296.000
596446.090,3312191.190,256.480,275.000
596446.620,3312191.210,256.690,190.000
596447.170,3312191.230,256.580,190.000
596447.720,3312191.260,256.560,275.000
596448.260,3312191.280,256.620,275.000
596448.800,3312191.300,256.650,296.000
596449.340,3312191.320,256.760,317.000
596449.880,3312191.340,256.650,275.000
596450.420,3312191.370,256.650,317.000
596450.960,3312191.390,256.670,254.000
596451.500,3312191.410,256.730,275.000
596452.050,3312191.430,256.710,296.000
596452.590,3312191.450,256.790,296.000
596453.130,3312191.470,256.790,296.000
596453.670,3312191.500,256.850,296.000
596454.210,3312191.520,256.810,296.000
596454.750,3312191.540,256.960,253.000
596455.290,3312191.560,256.930,338.000
596455.820,3312191.580,257.000,254.000
596455.650,3312191.280,256.990,296.000
596455.120,3312191.260,256.940,296.000
596454.580,3312191.240,256.940,296.000
596454.040,3312191.210,256.830,338.000
596453.500,3312191.190,256.960,275.000
596452.960,3312191.170,256.860,275.000
596452.420,3312191.140,256.770,317.000
596451.880,3312191.120,256.750,317.000
596451.340,3312191.100,256.810,253.000
596450.800,3312191.080,256.690,296.000
596450.260,3312191.050,256.700,254.000
596449.720,3312191.030,256.720,232.000
596449.180,3312191.000,256.740,253.000
596448.640,3312190.980,256.720,232.000
596448.100,3312190.960,256.770,169.000
596447.560,3312190.930,256.800,148.000
596447.020,3312190.910,256.650,190.000
596446.490,3312190.890,256.560,211.000
596445.950,3312190.870,256.450,317.000
596445.410,3312190.840,256.470,338.000
596444.870,3312190.820,256.420,296.000
596444.340,3312190.800,256.450,338.000
596443.790,3312190.770,256.440,359.000
596443.250,3312190.750,256.400,338.000
596442.710,3312190.730,256.420,317.000
596442.170,3312190.700,256.430,338.000
596441.620,3312190.680,256.380,317.000
596440.920,3312190.550,262.870,86.000
596441.080,3312190.660,256.400,317.000
596440.390,3312190.520,262.860,165.000
596440.540,3312190.630,256.470,28.000
596439.870,3312190.510,262.230,186.000
596440.000,3312190.610,256.520,21.000
596439.350,3312190.500,261.640,55.000
596439.470,3312190.590,256.440,116.000
596438.770,3312190.440,263.660,227.000
596438.870,3312190.520,259.160,20.000
596438.240,3312190.410,263.830,6.000
596438.330,3312190.490,259.380,314.000
596438.390,3312190.540,256.160,46.000
596437.750,3312190.440,261.190,166.000
596437.850,3312190.520,256.440,24.000
596437.200,3312190.400,261.880,187.000
596437.300,3312190.490,256.440,48.000
596436.670,3312190.380,261.750,145.000
596436.760,3312190.470,256.370,65.000
596436.120,3312190.350,261.880,115.000
596436.220,3312190.450,256.310,177.000
596435.590,3312190.340,261.580,182.000
596435.040,3312190.300,262.510,186.000
596435.140,3312190.400,256.280,45.000
596434.530,3312190.290,261.370,16.000
596434.600,3312190.380,256.290,465.000
596433.970,3312190.250,262.580,114.000
596434.020,3312190.300,259.370,50.000
596434.060,3312190.360,256.210,80.000
596433.430,3312190.210,263.440,186.000
596433.520,3312190.330,256.260,56.000
596432.900,3312190.190,263.420,248.000
596432.380,3312190.200,261.220,166.000
596432.440,3312190.280,256.300,44.000
596431.830,3312190.150,262.670,149.000
596431.900,3312190.260,256.170,147.000
596431.300,3312190.140,262.220,127.000
596430.740,3312190.080,264.310,102.000
596430.810,3312190.210,256.190,145.000
596430.210,3312190.060,264.070,147.000
596430.270,3312190.190,256.190,152.000
596429.670,3312190.030,264.320,30.000
596429.150,3312190.040,262.820,157.000
596429.190,3312190.140,256.150,128.000
596428.610,3312189.990,264.290,28.000
596428.650,3312190.120,256.110,338.000
596428.090,3312189.990,262.710,73.000
596428.110,3312190.100,256.090,275.000
596427.550,3312189.950,263.590,33.000
596427.560,3312190.020,259.300,74.000
596427.570,3312190.080,255.990,148.000
596427.010,3312189.920,264.070,184.000
596427.020,3312190.000,259.390,94.000
596427.030,3312190.050,255.970,8.000
596426.470,3312189.890,264.880,15.000
596426.480,3312189.970,259.490,169.000
596426.480,3312190.030,255.970,99.000
596425.930,3312189.840,266.330,186.000
596425.940,3312190.000,256.110,8.000
596425.400,3312189.830,265.440,171.000
596425.400,3312189.920,259.680,53.000
596425.390,3312189.980,256.000,26.000
596424.860,3312189.810,265.240,49.000
596424.860,3312189.850,262.780,71.000
596424.860,3312189.900,259.690,92.000
596424.850,3312189.960,255.970,39.000
596424.330,3312189.770,266.230,128.000
596424.330,3312189.820,263.240,71.000
596424.320,3312189.890,259.030,15.000
596423.800,3312189.750,265.910,126.000
596423.790,3312189.800,262.780,104.000
596423.790,3312189.840,260.280,30.000
596423.770,3312189.910,255.910,16.000
596423.260,3312189.780,262.730,67.000
596423.250,3312189.820,260.140,53.000
596423.240,3312189.890,255.900,147.000
596422.740,3312189.730,264.480,128.000
596422.690,3312189.870,255.890,164.000
596422.210,3312189.680,266.030,112.000
596422.150,3312189.840,255.830,118.000
596421.670,3312189.670,265.230,152.000
596421.610,3312189.820,255.770,84.000
596421.130,3312189.650,264.870,148.000
596421.110,3312189.710,261.480,94.000
596421.060,3312189.800,255.720,18.000
596420.590,3312189.640,264.370,147.000
596420.560,3312189.690,261.260,62.000
596420.520,3312189.770,255.790,19.000
596420.060,3312189.610,264.880,185.000
596420.030,3312189.660,261.240,18.000
596419.980,3312189.750,255.690,30.000
596419.490,3312189.630,261.850,97.000
596419.430,3312189.730,255.710,167.000
596418.890,3312189.700,255.640,275.000
596418.350,3312189.680,255.690,360.000
596417.930,3312189.520,264.600,7.000
596417.810,3312189.660,255.670,508.000
596417.270,3312189.640,255.570,275.000
596416.850,3312189.480,264.120,33.000
596416.780,3312189.560,259.190,152.000
596416.730,3312189.610,255.580,62.000
596416.330,3312189.440,265.220,158.000
596416.250,3312189.520,260.310,36.000
596416.180,3312189.590,255.640,26.000
596415.800,3312189.410,265.620,114.000
596415.700,3312189.500,259.770,57.000
596415.630,3312189.570,255.520,115.000
596415.270,3312189.380,266.180,131.000
596415.090,3312189.540,255.560,135.000
596414.740,3312189.360,266.010,8.000
596414.690,3312189.400,263.260,10.000
596414.550,3312189.520,255.530,466.000
596414.220,3312189.330,266.650,57.000
596414.160,3312189.370,263.410,11.000
596414.010,3312189.500,255.470,297.000
596413.690,3312189.300,266.720,122.000
596413.630,3312189.350,263.820,61.000
596413.470,3312189.470,255.460,38.000
596413.150,3312189.280,266.390,134.000
596413.100,3312189.320,263.810,63.000
596412.930,3312189.450,255.390,79.000
596412.500,3312189.350,260.490,54.000
596412.390,3312189.430,255.420,382.000
596412.040,3312189.270,264.350,133.000
596411.980,3312189.310,261.420,91.000
596411.840,3312189.400,255.430,43.000
596411.510,3312189.240,264.860,144.000
596411.290,3312189.380,255.430,64.000
596410.910,3312189.250,262.200,116.000
596410.750,3312189.360,255.370,201.000
596410.370,3312189.230,262.130,155.000
596410.200,3312189.330,255.370,145.000
596409.830,3312189.210,262.150,68.000
596409.660,3312189.310,255.350,382.000
596409.290,3312189.190,261.990,82.000
596409.120,3312189.280,255.400,403.000
596408.770,3312189.160,262.320,100.000
596408.580,3312189.260,255.390,382.000
596408.230,3312189.140,262.030,31.000
596408.030,3312189.240,255.330,509.000
596407.700,3312189.110,262.160,96.000
596407.490,3312189.220,255.280,361.000
596407.170,3312189.090,262.320,207.000
596407.020,3312189.160,257.330,50.000
596406.630,3312189.060,262.370,77.000
596406.410,3312189.170,255.240,340.000
596406.110,3312189.040,262.720,186.000
596405.580,3312189.010,262.940,120.000
596405.500,3312189.050,260.470,133.000
596405.320,3312189.120,255.140,59.000
596405.030,3312188.990,262.630,249.000
596404.780,3312189.100,255.120,9.000
596404.500,3312188.970,262.650,166.000
596404.230,3312189.080,254.950,40.000
596403.940,3312188.950,262.120,207.000
596403.800,3312189.010,258.280,33.000
596403.680,3312189.060,254.770,15.000
596403.410,3312188.920,262.320,207.000
596403.140,3312189.030,254.770,15.000
596402.870,3312188.900,262.270,164.000
596402.590,3312189.010,254.790,172.000
596402.350,3312188.870,262.600,38.000
596402.050,3312188.990,254.850,187.000
596401.910,3312188.820,265.010,43.000
596401.700,3312188.890,259.640,82.000
596401.510,3312188.960,254.760,105.000
596401.350,3312188.800,264.430,85.000
596401.250,3312188.840,261.950,80.000
596400.960,3312188.940,254.690,94.000
596400.820,3312188.780,264.530,52.000
596400.650,3312188.830,260.490,25.000
596400.410,3312188.920,254.580,154.000
596400.290,3312188.750,264.720,43.000
596400.050,3312188.830,259.020,34.000
596399.870,3312188.890,254.620,157.000
596399.740,3312188.730,264.270,144.000
596399.550,3312188.800,259.810,62.000
596399.330,3312188.870,254.690,8.000
596399.210,3312188.710,264.420,37.000
596399.020,3312188.770,260.190,62.000
596398.780,3312188.850,254.600,136.000
596398.600,3312188.710,262.760,77.000
596398.450,3312188.750,259.490,133.000
596398.240,3312188.820,254.620,37.000
596397.910,3312188.730,259.390,112.000
596397.690,3312188.800,254.610,170.000
596397.350,3312188.720,258.910,59.000
596397.150,3312188.780,254.600,405.000
596396.840,3312188.680,259.480,17.000
596396.060,3312188.730,254.450,341.000
596395.520,3312188.710,254.480,384.000
596394.970,3312188.680,254.440,362.000
596394.420,3312188.660,254.490,384.000
596393.880,3312188.640,254.500,384.000
596393.330,3312188.610,254.460,320.000
596392.780,3312188.590,254.430,341.000
596392.240,3312188.570,254.470,320.000
596391.700,3312188.540,254.430,341.000
596391.160,3312188.520,254.480,341.000
596390.620,3312188.490,254.520,341.000
596390.080,3312188.470,254.550,256.000
596389.530,3312188.450,254.510,298.000
596388.980,3312188.420,254.530,298.000
596388.430,3312188.400,254.470,277.000
596387.880,3312188.380,254.460,256.000
596387.330,3312188.350,254.400,256.000
596386.790,3312188.330,254.400,256.000
596386.240,3312188.310,254.280,256.000
596385.690,3312188.280,254.280,235.000
596385.140,3312188.260,254.210,299.000
596384.590,3312188.240,254.190,256.000
596384.050,3312188.210,254.180,278.000
596383.500,3312188.190,254.150,278.000
596382.960,3312188.170,254.150,321.000
596382.410,3312188.140,254.140,299.000
596381.870,3312188.120,254.140,321.000
596381.320,3312188.100,254.110,257.000
596380.770,3312188.070,254.090,299.000
596380.230,3312188.050,254.110,299.000
596379.680,3312188.030,254.070,278.000
596379.130,3312188.000,254.090,321.000
596378.580,3312187.980,254.030,321.000
596378.030,3312187.960,254.050,235.000
596377.490,3312187.930,254.040,257.000
596376.940,3312187.910,254.040,235.000
596376.390,3312187.880,254.030,278.000
596375.850,3312187.860,254.050,300.000
596375.300,3312187.840,254.040,300.000
596374.750,3312187.810,254.050,321.000
596374.210,3312187.790,254.040,257.000
596373.660,3312187.770,254.030,300.000
596373.110,3312187.740,254.030,322.000
596372.570,3312187.720,254.040,322.000
596372.020,3312187.690,254.060,300.000
596371.470,3312187.670,254.080,343.000
596370.920,3312187.650,254.050,257.000
596370.380,3312187.620,254.060,279.000
596369.830,3312187.600,254.060,322.000
596369.280,3312187.570,254.070,300.000
596368.740,3312187.550,254.130,300.000
596368.190,3312187.530,254.100,322.000
596367.650,3312187.500,254.240,300.000
596367.110,3312187.480,254.240,193.000
596366.550,3312187.450,254.210,279.000
596366.010,3312187.430,254.210,236.000
596365.460,3312187.400,254.210,166.000
596364.910,3312187.380,254.210,322.000
596364.360,3312187.360,254.200,301.000
596363.810,3312187.330,254.160,279.000
596363.260,3312187.310,254.150,258.000
596362.710,3312187.280,254.150,258.000
596362.170,3312187.260,254.160,301.000
596361.620,3312187.230,254.170,279.000
596361.070,3312187.210,254.160,323.000
596360.520,3312187.190,254.180,258.000
596359.970,3312187.160,254.160,280.000
596359.430,3312187.140,254.210,301.000
596358.890,3312187.110,254.230,323.000
596358.330,3312187.090,254.210,280.000
596357.790,3312187.060,254.240,301.000
596357.240,3312187.040,254.260,215.000
596356.690,3312187.020,254.260,323.000
596356.140,3312186.990,254.300,280.000
596355.590,3312186.970,254.260,302.000
596355.040,3312186.940,254.260,280.000
596354.490,3312186.920,254.290,302.000
596353.940,3312186.900,254.260,280.000
596353.390,3312186.870,254.260,280.000
596352.850,3312186.850,254.310,280.000
596352.290,3312186.820,254.320,302.000
596351.750,3312186.800,254.360,237.000
596351.200,3312186.770,254.350,280.000
596350.650,3312186.750,254.360,259.000
596350.090,3312186.720,254.360,302.000
596349.540,3312186.700,254.380,302.000
596349.000,3312186.680,254.410,280.000
596348.450,3312186.650,254.430,302.000
596347.900,3312186.630,254.430,324.000
596347.360,3312186.600,254.460,302.000
596346.810,3312186.580,254.480,302.000
596346.260,3312186.550,254.490,302.000
596345.710,3312186.530,254.520,302.000
596345.160,3312186.500,254.550,302.000
596344.600,3312186.480,254.540,259.000
596344.050,3312186.460,254.550,346.000
596343.510,3312186.430,254.590,259.000
596342.960,3312186.410,254.600,324.000
